79.3726 -114.953 788
0.498039 0.207843 0.243137
110.169 -126.77 869
0.427451 0.0823529 0.0509804
114.96 -127.061 871
0.278431 0.145098 0.160784
119.498 -127.061 871
0.317647 0.172549 0.207843
123.751 -126.77 869
0.368627 0.239216 0.286275
127.688 -126.186 865
0.588235 0.470588 0.431373
131.737 -125.749 862
0.643137 0.529412 0.580392
749.851 -611.529 4192
0.643137 0.54902 0.584314
771.691 -611.529 4192
0.643137 0.545098 0.556863
793.532 -611.529 4192
0.647059 0.54902 0.572549
815.372 -611.529 4192
0.666667 0.545098 0.576471
827.226 -604.235 4142
0.682353 0.556863 0.596078
848.806 -604.235 4142
0.658824 0.556863 0.596078
860.089 -597.087 4093
0.654902 0.556863 0.596078
881.414 -597.087 4093
0.654902 0.564706 0.592157
892.152 -590.085 4045
0.670588 0.572549 0.615686
913.226 -590.085 4045
0.670588 0.572549 0.6
923.445 -583.228 3998
0.67451 0.576471 0.580392
944.274 -583.228 3998
0.686275 0.572549 0.615686
965.104 -583.228 3998
0.686275 0.572549 0.623529
985.933 -583.228 3998
0.686275 0.580392 0.611765
995.179 -576.518 3952
0.682353 0.592157 0.623529
1015.77 -576.518 3952
0.686275 0.584314 0.619608
1036.36 -576.518 3952
0.690196 0.580392 0.627451
1044.91 -569.953 3907
0.701961 0.580392 0.635294
1053.55 -563.68 3864
0.701961 0.592157 0.643137
1073.68 -563.68 3864
0.701961 0.596078 0.639216
1093.81 -563.68 3864
0.705882 0.596078 0.654902
1113.94 -563.68 3864
0.705882 0.603922 0.635294
1134.07 -563.68 3864
0.709804 0.603922 0.647059
1141.36 -557.407 3821
0.721569 0.6 0.662745
1161.27 -557.407 3821
0.721569 0.596078 0.662745
1181.17 -557.407 3821
0.709804 0.619608 0.662745
1187.88 -551.281 3779
0.713726 0.623529 0.643137
1207.57 -551.281 3779
0.705882 0.619608 0.678431
1227.26 -551.281 3779
0.721569 0.619608 0.682353
1233.42 -545.299 3738
0.729412 0.623529 0.690196
1252.89 -545.299 3738
0.733333 0.619608 0.686275
1258.75 -539.464 3698
0.623529 0.517647 0.541176
-701.613 -710.383 5050
0.647059 0.517647 0.54902
-675.303 -710.383 5050
0.356863 0.176471 0.235294
-67.6657 -116.615 829
0.309804 0.172549 0.168627
-63.041 -116.053 825
0.25098 0.117647 0.137255
-58.7427 -116.053 825
0.211765 0.101961 0.117647
-55.7644 -118.866 845
0.219608 0.0901961 0.113725
-51.5443 -119.288 848
0.192157 0.0862745 0.0784314
-47.1262 -119.288 848
0.196078 0.0980392 0.156863
-42.7081 -119.288 848
0.396078 0.258824 0.219608
-36.0324 -112.255 798
0.490196 0.286275 0.27451
-31.5952 -111.27 791
0.517647 0.305882 0.290196
-27.3699 -110.848 788
0.537255 0.305882 0.294118
-23.1463 -110.285 784
0.54902 0.313726 0.301961
-18.9401 -109.582 779
0.560784 0.32549 0.313726
-14.8433 -109.301 777
0.568627 0.329412 0.368627
-10.7395 -108.738 773
0.564706 0.329412 0.32549
-6.70353 -108.597 772
0.54902 0.313726 0.301961
-2.66405 -107.894 767
0.517647 0.298039 0.27451
1.32855 -107.613 765
0.509804 0.278431 0.254902
5.28641 -107.05 761
0.521569 0.266667 0.282353
9.21475 -106.628 758
0.709804 0.458824 0.466667
13.1118 -106.206 755
0.921569 0.658824 0.65098
17.0454 -106.206 755
0.980392 0.811765 0.835294
20.9789 -106.206 755
0.984314 0.847059 0.815686
24.9455 -106.347 756
0.972549 0.835294 0.8
29.0753 -107.05 761
0.976471 0.784314 0.745098
33.0401 -107.05 761
0.988235 0.729412 0.698039
37.0049 -107.05 761
0.933333 0.607843 0.568627
40.9697 -107.05 761
0.972549 0.721569 0.721569
45.0526 -107.331 763
0.956863 0.882353 0.85098
49.0278 -107.331 763
0.968628 0.945098 0.964706
53.142 -107.613 765
0.988235 0.996078 0.996078
57.277 -107.894 767
0.996078 0.996078 0.996078
61.5127 -108.316 770
0.988235 0.996078 0.984314
65.6946 -108.597 772
0.976471 0.964706 0.952941
70.1683 -109.301 777
0.968628 0.941177 0.92549
74.503 -109.723 780
0.964706 0.890196 0.839216
79.4733 -110.989 789
0.588235 0.239216 0.32549
109.662 -121.68 865
0.4 0.156863 0.0588235
114.96 -122.524 871
0.258824 0.121569 0.121569
119.498 -122.524 871
0.305882 0.156863 0.176471
123.751 -122.242 869
0.329412 0.207843 0.227451
127.688 -121.68 865
0.54902 0.415686 0.372549
131.431 -120.976 860
0.698039 0.521569 0.52549
136.228 -121.258 862
0.647059 0.541176 0.572549
781.08 -596.863 4243
0.65098 0.54902 0.576471
803.186 -596.863 4243
0.658824 0.552941 0.580392
815.372 -589.689 4192
0.639216 0.556863 0.596078
837.212 -589.689 4192
0.662745 0.552941 0.619608
859.053 -589.689 4192
0.662745 0.560784 0.592157
870.386 -582.655 4142
0.662745 0.560784 0.603922
871.077 -569.01 4045
0.662745 0.568627 0.607843
892.152 -569.01 4045
0.67451 0.572549 0.611765
913.226 -569.01 4045
0.666667 0.576471 0.619608
923.445 -562.399 3998
0.686275 0.576471 0.596078
944.274 -562.399 3998
0.678431 0.580392 0.6
965.104 -562.399 3998
0.686275 0.568627 0.611765
974.59 -555.928 3952
0.682353 0.580392 0.619608
995.179 -555.928 3952
0.686275 0.576471 0.639216
1015.77 -555.928 3952
0.686275 0.580392 0.647059
1036.36 -555.928 3952
0.682353 0.584314 0.635294
1044.91 -549.598 3907
0.698039 0.592157 0.643137
1053.55 -543.549 3864
0.690196 0.596078 0.639216
1073.68 -543.549 3864
0.690196 0.6 0.631373
1093.81 -543.549 3864
0.701961 0.6 0.643137
1113.94 -543.549 3864
0.690196 0.6 0.639216
1121.45 -537.5 3821
0.713726 0.607843 0.65098
1141.36 -537.5 3821
0.709804 0.615686 0.654902
1161.27 -537.5 3821
0.709804 0.611765 0.647059
1181.17 -537.5 3821
0.717647 0.607843 0.639216
1187.88 -531.592 3779
0.72549 0.611765 0.666667
1207.57 -531.592 3779
0.721569 0.619608 0.670588
1213.94 -525.824 3738
0.721569 0.619608 0.67451
1233.42 -525.824 3738
0.72549 0.631373 0.686275
1252.89 -525.824 3738
0.733333 0.627451 0.682353
1272.37 -525.824 3738
0.611765 0.517647 0.52549
-701.613 -684.073 5050
0.627451 0.513726 0.537255
-675.303 -684.073 5050
0.34902 0.172549 0.184314
-67.5025 -112.025 827
0.301961 0.168627 0.164706
-63.041 -111.755 825
0.247059 0.12549 0.137255
-58.7427 -111.755 825
0.223529 0.121569 0.101961
-55.9623 -114.87 848
0.211765 0.0901961 0.0862745
-51.5443 -114.87 848
0.196078 0.0941177 0.101961
-47.1262 -114.87 848
0.168627 0.0823529 0.141176
-42.7081 -114.87 848
0.478431 0.286275 0.282353
-31.6751 -107.42 793
0.521569 0.305882 0.294118
-27.3699 -106.742 788
0.541176 0.313726 0.301961
-23.0872 -105.93 782
0.545098 0.317647 0.341176
-18.9401 -105.523 779
0.572549 0.333333 0.321569
-14.7669 -104.711 773
0.588235 0.341176 0.341176
-10.7257 -104.575 772
0.564706 0.333333 0.313726
-6.68617 -104.304 770
0.541176 0.313726 0.262745
-2.6571 -103.627 765
0.52549 0.305882 0.258824
1.32508 -103.356 763
0.533333 0.286275 0.290196
5.28641 -103.085 761
0.564706 0.341176 0.341176
9.21475 -102.679 758
0.788235 0.556863 0.505882
13.1118 -102.272 755
0.811765 0.6 0.607843
17.0454 -102.272 755
0.972549 0.721569 0.705882
20.9234 -102.001 753
0.968628 0.741176 0.756863
24.9125 -102.272 755
0.964706 0.776471 0.760784
28.9607 -102.679 758
0.968628 0.784314 0.760784
32.9098 -102.679 758
0.968628 0.811765 0.772549
36.9563 -102.95 760
0.988235 0.752941 0.694118
41.0774 -103.356 763
0.952941 0.737255 0.74902
45.0526 -103.356 763
0.945098 0.890196 0.901961
49.0278 -103.356 763
0.980392 0.972549 0.984314
53.142 -103.627 765
0.992157 0.988235 0.976471
57.3517 -104.033 768
0.996078 0.996078 0.988235
61.5127 -104.304 770
0.976471 0.964706 0.952941
65.6946 -104.575 772
0.968628 0.945098 0.929412
70.1683 -105.252 777
0.968628 0.933333 0.913726
74.8851 -106.201 784
0.964706 0.831373 0.807843
79.4733 -106.878 789
0.694118 0.333333 0.290196
109.281 -116.767 862
0.352941 0.0196078 0.0392157
114.168 -117.173 865
0.262745 0.117647 0.121569
119.498 -117.986 871
0.333333 0.152941 0.137255
123.751 -117.715 869
0.341176 0.176471 0.168627
127.246 -116.767 862
0.470588 0.376471 0.415686
131.737 -116.767 862
0.654902 0.47451 0.490196
135.912 -116.496 860
0.639216 0.545098 0.584314
781.08 -574.757 4243
0.647059 0.541176 0.560784
803.186 -574.757 4243
0.65098 0.552941 0.572549
815.372 -567.848 4192
0.654902 0.552941 0.588235
837.212 -567.848 4192
0.658824 0.552941 0.6
859.053 -567.848 4192
0.662745 0.54902 0.607843
860.089 -554.438 4093
0.658824 0.560784 0.615686
871.077 -547.936 4045
0.666667 0.564706 0.603922
892.152 -547.936 4045
0.670588 0.564706 0.607843
913.226 -547.936 4045
0.67451 0.572549 0.603922
923.445 -541.569 3998
0.67451 0.572549 0.603922
933.41 -535.338 3952
0.658824 0.584314 0.6
954 -535.338 3952
0.678431 0.580392 0.607843
974.59 -535.338 3952
0.686275 0.584314 0.619608
1006.76 -541.569 3998
0.690196 0.592157 0.623529
1004.2 -529.242 3907
0.705882 0.592157 0.627451
1024.56 -529.242 3907
0.690196 0.580392 0.627451
1033.41 -523.417 3864
0.694118 0.592157 0.623529
1053.55 -523.417 3864
0.678431 0.6 0.643137
1073.68 -523.417 3864
0.701961 0.6 0.639216
1093.81 -523.417 3864
0.694118 0.607843 0.647059
1101.54 -517.593 3821
0.690196 0.603922 0.627451
1121.45 -517.593 3821
0.701961 0.611765 0.643137
1141.36 -517.593 3821
0.709804 0.611765 0.647059
1161.27 -517.593 3821
0.698039 0.615686 0.647059
1181.17 -517.593 3821
0.713726 0.615686 0.65098
1187.88 -511.903 3779
0.721569 0.619608 0.658824
1194.47 -506.349 3738
0.72549 0.615686 0.658824
1200.95 -500.931 3698
0.717647 0.631373 0.654902
1220.22 -500.931 3698
0.721569 0.627451 0.670588
1252.89 -506.349 3738
0.729412 0.623529 0.678431
1272.37 -506.349 3738
0.6 0.498039 0.52549
-691.471 -648.254 4977
0.611765 0.509804 0.533333
-665.541 -648.254 4977
0.321569 0.156863 0.164706
-67.6657 -107.977 829
0.286275 0.156863 0.137255
-63.041 -107.456 825
0.239216 0.113725 0.12549
-59.7396 -109.28 839
0.215686 0.113725 0.101961
-55.7644 -110.061 845
0.203922 0.105882 0.0980392
-51.7874 -110.973 852
0.192157 0.0980392 0.105882
-47.4596 -111.233 854
0.466667 0.282353 0.262745
-31.7549 -103.549 795
0.501961 0.309804 0.301961
-27.4046 -102.767 789
0.537255 0.313726 0.317647
-23.0872 -101.855 782
0.54902 0.329412 0.309804
-18.9401 -101.465 779
0.568627 0.333333 0.317647
-14.7669 -100.683 773
0.584314 0.337255 0.321569
-10.7257 -100.553 772
0.556863 0.32549 0.298039
-6.68617 -100.292 770
0.533333 0.305882 0.337255
-2.65015 -99.3807 763
0.529412 0.309804 0.270588
1.3216 -99.1202 761
0.552941 0.309804 0.313726
5.26557 -98.7295 758
0.615686 0.368627 0.360784
9.17828 -98.3387 755
0.803922 0.541176 0.533333
13.1118 -98.3387 755
0.803922 0.498039 0.509804
17.0002 -98.0782 753
0.94902 0.643137 0.631373
20.8956 -97.948 752
0.972549 0.737255 0.729412
24.8135 -97.948 752
0.956863 0.784314 0.768628
28.846 -98.3387 755
0.956863 0.843137 0.803922
32.823 -98.469 756
0.956863 0.858824 0.839216
36.859 -98.7295 758
0.956863 0.862745 0.823529
41.0774 -99.3807 763
0.956863 0.847059 0.839216
44.9345 -99.1202 761
0.972549 0.960784 0.976471
49.0278 -99.3807 763
0.996078 0.996078 0.996078
53.142 -99.6413 765
0.988235 0.996078 0.980392
57.277 -99.9017 767
0.976471 0.976471 0.988235
61.5127 -100.292 770
0.960784 0.933333 0.909804
65.9499 -100.944 775
0.964706 0.941177 0.921569
70.1683 -101.204 777
0.964706 0.933333 0.878431
75.2671 -102.637 788
0.968628 0.839216 0.788235
79.6748 -103.028 791
0.305882 0.141176 0.172549
119.498 -113.448 871
0.298039 0.160784 0.113725
123.751 -113.187 869
0.329412 0.172549 0.168627
127.246 -112.275 862
0.423529 0.286275 0.337255
131.431 -112.015 860
0.607843 0.482353 0.47451
135.595 -111.755 858
0.658824 0.537255 0.580392
771.691 -546.008 4192
0.658824 0.545098 0.576471
803.186 -552.651 4243
0.654902 0.54902 0.580392
815.372 -546.008 4192
0.65098 0.552941 0.576471
837.212 -546.008 4192
0.666667 0.54902 0.556863
848.806 -539.495 4142
0.67451 0.560784 0.6
860.089 -533.113 4093
0.658824 0.560784 0.623529
871.077 -526.861 4045
0.666667 0.568627 0.6
892.152 -526.861 4045
0.670588 0.568627 0.6
913.226 -526.861 4045
0.67451 0.572549 0.596078
934.301 -526.861 4045
0.67451 0.572549 0.603922
944.274 -520.74 3998
0.67451 0.572549 0.611765
943.137 -508.887 3907
0.678431 0.568627 0.627451
963.492 -508.887 3907
0.686275 0.592157 0.627451
995.179 -514.748 3952
0.686275 0.584314 0.627451
1004.2 -508.887 3907
0.690196 0.592157 0.619608
1024.56 -508.887 3907
0.686275 0.584314 0.611765
1033.41 -503.286 3864
0.705882 0.584314 0.631373
1053.55 -503.286 3864
0.694118 0.596078 0.639216
1073.68 -503.286 3864
0.705882 0.607843 0.647059
1093.81 -503.286 3864
0.698039 0.607843 0.643137
1101.54 -497.685 3821
0.705882 0.607843 0.639216
1121.45 -497.685 3821
0.701961 0.611765 0.607843
1128.81 -492.215 3779
0.709804 0.607843 0.670588
1161.27 -497.685 3821
0.717647 0.607843 0.662745
1168.19 -492.215 3779
0.72549 0.619608 0.666667
1187.88 -492.215 3779
0.717647 0.611765 0.670588
1194.47 -486.874 3738
0.721569 0.619608 0.666667
1213.94 -486.874 3738
0.713726 0.619608 0.662745
1233.42 -486.874 3738
0.737255 0.619608 0.682353
1239.48 -481.664 3698
0.721569 0.627451 0.678431
1258.75 -481.664 3698
0.592157 0.490196 0.505882
-701.613 -631.452 5050
0.6 0.501961 0.517647
-665.541 -622.324 4977
0.309804 0.156863 0.164706
-67.6657 -103.658 829
0.270588 0.152941 0.133333
-63.4995 -103.908 831
0.243137 0.121569 0.105882
-59.882 -105.159 841
0.215686 0.117647 0.0784314
-55.9623 -106.034 848
0.207843 0.113725 0.0823529
-51.909 -106.784 854
0.207843 0.113725 0.0980392
-47.5708 -107.034 856
0.2 0.101961 0.0941177
-43.0103 -106.784 854
0.47451 0.27451 0.219608
-31.8748 -99.7819 798
0.501961 0.298039 0.27451
-27.4741 -98.9066 791
0.529412 0.309804 0.305882
-23.1463 -98.0314 784
0.529412 0.309804 0.317647
-18.9401 -97.4062 779
0.556863 0.32549 0.32549
-14.7669 -96.6559 773
0.560784 0.329412 0.309804
-10.7257 -96.5309 772
0.537255 0.317647 0.298039
-6.68617 -96.2808 770
0.513726 0.305882 0.247059
-2.64321 -95.1554 761
0.533333 0.309804 0.290196
1.31987 -95.0304 760
0.560784 0.337255 0.329412
5.25168 -94.5302 756
0.662745 0.403922 0.396078
9.17828 -94.4052 755
0.780392 0.494118 0.486275
13.0771 -94.1551 753
0.835294 0.505882 0.517647
16.9777 -94.0301 752
0.886275 0.658824 0.670588
20.84 -93.78 750
0.996078 0.752941 0.772549
24.7475 -93.78 750
0.984314 0.92549 0.901961
28.7696 -94.1551 753
0.964706 0.898039 0.886275
32.823 -94.5302 756
0.952941 0.87451 0.862745
36.859 -94.7803 758
0.94902 0.854902 0.866667
40.9697 -95.1554 761
0.952941 0.913726 0.901961
44.9345 -95.1554 761
0.976471 0.968628 0.964706
49.0278 -95.4055 763
0.996078 0.996078 0.996078
53.142 -95.6556 765
0.996078 0.984314 0.964706
57.277 -95.9057 767
0.964706 0.913726 0.917647
61.6725 -96.5309 772
0.960784 0.905882 0.87451
65.9499 -96.906 775
0.960784 0.913726 0.87451
70.3489 -97.4062 779
0.960784 0.882353 0.843137
75.2671 -98.5315 788
0.980392 0.886275 0.815686
79.8762 -99.1567 793
0.364706 0.145098 0.156863
119.224 -108.66 869
0.266667 0.133333 0.101961
124.036 -108.91 871
0.341176 0.172549 0.172549
126.95 -107.534 860
0.443137 0.345098 0.313726
130.82 -107.034 856
0.654902 0.541176 0.572549
781.08 -530.545 4243
0.662745 0.541176 0.572549
793.532 -524.168 4192
0.654902 0.560784 0.584314
815.372 -524.168 4192
0.666667 0.552941 0.576471
827.226 -517.916 4142
0.678431 0.54902 0.588235
848.806 -517.916 4142
0.666667 0.556863 0.603922
850.003 -505.787 4045
0.666667 0.560784 0.603922
871.077 -505.787 4045
0.670588 0.564706 0.607843
892.152 -505.787 4045
0.662745 0.568627 0.603922
913.226 -505.787 4045
0.666667 0.580392 0.607843
923.445 -499.91 3998
0.686275 0.576471 0.619608
933.41 -494.158 3952
0.682353 0.568627 0.603922
954 -494.158 3952
0.686275 0.572549 0.615686
974.59 -494.158 3952
0.709804 0.580392 0.615686
995.179 -494.158 3952
0.694118 0.596078 0.619608
1004.2 -488.531 3907
0.678431 0.596078 0.623529
1024.56 -488.531 3907
0.686275 0.588235 0.607843
1033.41 -483.155 3864
0.698039 0.584314 0.635294
1053.55 -483.155 3864
0.701961 0.596078 0.65098
1073.68 -483.155 3864
0.698039 0.6 0.635294
1081.64 -477.778 3821
0.705882 0.615686 0.639216
1101.54 -477.778 3821
0.709804 0.603922 0.635294
1134.07 -483.155 3864
0.709804 0.611765 0.658824
1141.36 -477.778 3821
0.705882 0.603922 0.643137
1161.27 -477.778 3821
0.72549 0.611765 0.647059
1168.19 -472.526 3779
0.709804 0.615686 0.643137
1187.88 -472.526 3779
0.713726 0.619608 0.662745
1207.57 -472.526 3779
0.709804 0.611765 0.666667
1200.95 -462.398 3698
0.72549 0.623529 0.666667
1220.22 -462.398 3698
0.721569 0.623529 0.662745
1239.48 -462.398 3698
0.717647 0.623529 0.662745
1258.75 -462.398 3698
0.588235 0.478431 0.509804
-701.613 -605.141 5050
0.596078 0.490196 0.501961
-675.303 -605.141 5050
0.380392 0.160784 0.160784
-72.5058 -100.058 835
0.301961 0.152941 0.152941
-67.9922 -99.8184 833
0.27451 0.14902 0.133333
-63.8051 -100.058 835
0.270588 0.121569 0.129412
-60.0244 -101.017 843
0.223529 0.105882 0.0588235
-56.0943 -101.855 850
0.215686 0.101961 0.0941177
-51.7874 -102.095 852
0.215686 0.0980392 0.0862745
-47.4596 -102.335 854
0.180392 0.0823529 0.0745098
-42.8088 -101.855 850
0.482353 0.278431 0.278431
-27.5435 -95.0252 793
0.521569 0.290196 0.301961
-23.2053 -94.1864 786
0.529412 0.313726 0.298039
-19.013 -93.7071 782
0.533333 0.313726 0.301961
-14.7669 -92.6286 773
0.529412 0.317647 0.309804
-10.7257 -92.5088 772
0.529412 0.317647 0.301961
-6.6688 -92.0294 768
0.52549 0.305882 0.270588
-2.64321 -91.1906 761
0.529412 0.305882 0.294118
1.31639 -90.8311 758
0.537255 0.305882 0.290196
5.25168 -90.5915 756
0.545098 0.262745 0.305882
9.17828 -90.4716 755
0.533333 0.227451 0.254902
13.0771 -90.232 753
0.694118 0.4 0.462745
16.9777 -90.1122 752
0.686275 0.333333 0.470588
20.8956 -90.1122 752
0.721569 0.247059 0.486275
24.8135 -90.1122 752
0.815686 0.466667 0.705882
28.846 -90.4716 755
0.933333 0.792157 0.886275
32.823 -90.5915 756
0.976471 0.862745 0.886275
36.9563 -91.0708 760
0.945098 0.678431 0.752941
40.9159 -91.0708 760
0.968628 0.882353 0.94902
44.9345 -91.1906 761
0.968628 0.937255 0.937255
49.0278 -91.4303 763
0.984314 0.980392 0.964706
53.2809 -91.9096 767
0.972549 0.972549 0.933333
57.3517 -92.0294 768
0.960784 0.917647 0.905882
61.7524 -92.6286 773
0.968628 0.945098 0.890196
66.1201 -93.1079 777
0.956863 0.886275 0.858824
70.4392 -93.4674 780
0.964706 0.886275 0.85098
75.3626 -94.5459 789
0.980392 0.85098 0.803922
80.2792 -95.5045 797
0.329412 0.141176 0.160784
122.755 -103.293 862
0.388235 0.2 0.231373
126.655 -102.814 858
0.654902 0.556863 0.572549
803.186 -508.439 4243
0.647059 0.54902 0.592157
825.292 -508.439 4243
0.658824 0.552941 0.588235
827.226 -496.336 4142
0.666667 0.556863 0.596078
838.765 -490.464 4093
0.67451 0.545098 0.603922
850.003 -484.712 4045
0.670588 0.556863 0.592157
871.077 -484.712 4045
0.666667 0.564706 0.592157
892.152 -484.712 4045
0.670588 0.568627 0.6
913.226 -484.712 4045
0.670588 0.572549 0.611765
923.445 -479.08 3998
0.670588 0.568627 0.623529
944.274 -479.08 3998
0.67451 0.576471 0.611765
965.104 -479.08 3998
0.682353 0.580392 0.607843
985.933 -479.08 3998
0.682353 0.588235 0.627451
995.179 -473.568 3952
0.690196 0.588235 0.627451
993.151 -463.023 3864
0.690196 0.588235 0.635294
1013.28 -463.023 3864
0.686275 0.592157 0.639216
1033.41 -463.023 3864
0.690196 0.596078 0.639216
1041.82 -457.87 3821
0.698039 0.6 0.635294
1061.73 -457.87 3821
0.690196 0.603922 0.643137
1093.81 -463.023 3864
0.705882 0.596078 0.635294
1101.54 -457.87 3821
0.698039 0.6 0.647059
1121.45 -457.87 3821
0.701961 0.607843 0.662745
1141.36 -457.87 3821
0.690196 0.615686 0.643137
1161.27 -457.87 3821
0.709804 0.611765 0.65098
1155.52 -447.925 3738
0.705882 0.611765 0.635294
1187.88 -452.838 3779
0.709804 0.611765 0.647059
1194.47 -447.925 3738
0.713726 0.607843 0.647059
1200.95 -443.131 3698
0.709804 0.611765 0.662745
1220.22 -443.131 3698
0.701961 0.611765 0.678431
1239.48 -443.131 3698
0.701961 0.603922 0.662745
1258.75 -443.131 3698
0.588235 0.47451 0.498039
-712.033 -587.427 5125
0.603922 0.490196 0.513726
-675.303 -578.831 5050
0.384314 0.172549 0.180392
-72.3322 -95.4785 833
0.298039 0.141176 0.145098
-67.9922 -95.4785 833
0.294118 0.160784 0.121569
-63.8051 -95.7077 835
0.254902 0.129412 0.113725
-60.0244 -96.6247 843
0.223529 0.101961 0.101961
-55.9623 -97.1978 848
0.219608 0.105882 0.0941177
-51.7874 -97.6562 852
0.219608 0.101961 0.0862745
-47.2373 -97.427 850
0.196078 0.0980392 0.0784314
-42.557 -96.8539 845
0.47451 0.266667 0.235294
-27.613 -91.1229 795
0.509804 0.282353 0.266667
-23.2053 -90.0913 786
0.517647 0.298039 0.290196
-19.013 -89.6328 782
0.521569 0.301961 0.298039
-14.8433 -89.0597 777
0.521569 0.309804 0.305882
-10.7257 -88.4866 772
0.521569 0.309804 0.286275
-6.6688 -88.0282 768
0.509804 0.305882 0.266667
-2.65015 -87.4551 763
0.498039 0.243137 0.27451
1.31987 -87.1112 760
0.447059 0.184314 0.270588
5.25168 -86.6527 756
0.517647 0.247059 0.294118
9.17828 -86.5381 755
0.694118 0.372549 0.360784
13.0597 -86.1942 752
0.741176 0.392157 0.423529
16.9325 -85.965 750
0.913726 0.54902 0.509804
20.8956 -86.1942 752
0.996078 0.552941 0.580392
24.8465 -86.3089 753
0.992157 0.576471 0.556863
28.846 -86.5381 755
0.831373 0.372549 0.513726
32.9098 -86.882 758
0.690196 0.305882 0.486275
36.9563 -87.1112 760
0.658824 0.329412 0.407843
40.9697 -87.2258 761
0.870588 0.701961 0.780392
44.9345 -87.2258 761
0.964706 0.921569 0.909804
49.0278 -87.4551 763
0.964706 0.941177 0.929412
53.2809 -87.9135 767
0.964706 0.92549 0.905882
57.3517 -88.0282 768
0.960784 0.917647 0.901961
61.7524 -88.6013 773
0.972549 0.941177 0.921569
66.2903 -89.289 779
0.968628 0.929412 0.894118
70.6198 -89.6328 782
0.968628 0.921569 0.878431
75.2671 -90.3206 788
0.980392 0.847059 0.764706
80.0777 -91.1229 795
0.396078 0.2 0.203922
122.185 -98.344 858
0.415686 0.282353 0.278431
126.065 -97.8855 854
0.662745 0.541176 0.576471
790.836 -492.408 4296
0.67451 0.54902 0.584314
803.186 -486.333 4243
0.670588 0.54902 0.611765
815.372 -480.487 4192
0.662745 0.552941 0.580392
827.226 -474.756 4142
0.662745 0.564706 0.611765
838.765 -469.14 4093
0.666667 0.572549 0.584314
850.003 -463.638 4045
0.654902 0.568627 0.568627
871.077 -463.638 4045
0.678431 0.560784 0.607843
892.152 -463.638 4045
0.67451 0.576471 0.603922
902.615 -458.251 3998
0.678431 0.568627 0.611765
923.445 -458.251 3998
0.67451 0.572549 0.603922
944.274 -458.251 3998
0.670588 0.576471 0.603922
965.104 -458.251 3998
0.690196 0.584314 0.611765
985.933 -458.251 3998
0.682353 0.580392 0.619608
995.179 -452.978 3952
0.686275 0.588235 0.631373
993.151 -442.892 3864
0.694118 0.588235 0.635294
1013.28 -442.892 3864
0.705882 0.580392 0.65098
1033.41 -442.892 3864
0.698039 0.584314 0.635294
1041.82 -437.963 3821
0.701961 0.596078 0.619608
1061.73 -437.963 3821
0.698039 0.596078 0.639216
1093.81 -442.892 3864
0.694118 0.603922 0.623529
1101.54 -437.963 3821
0.694118 0.611765 0.627451
1121.45 -437.963 3821
0.698039 0.615686 0.635294
1141.36 -437.963 3821
0.701961 0.603922 0.639216
1161.27 -437.963 3821
0.701961 0.603922 0.654902
1168.19 -433.149 3779
0.705882 0.6 0.639216
1187.88 -433.149 3779
0.690196 0.6 0.647059
1194.47 -428.45 3738
0.709804 0.607843 0.639216
1213.94 -428.45 3738
0.705882 0.611765 0.643137
1220.22 -423.865 3698
0.701961 0.615686 0.647059
1239.48 -423.865 3698
0.701961 0.635294 0.643137
1258.75 -423.865 3698
0.576471 0.478431 0.462745
-701.613 -552.521 5050
0.596078 0.478431 0.501961
-665.541 -544.534 4977
0.4 0.168627 0.133333
-72.1585 -90.9197 831
0.298039 0.12549 0.156863
-67.9922 -91.1385 833
0.286275 0.152941 0.133333
-63.958 -91.5762 837
0.254902 0.12549 0.113725
-60.0244 -92.2326 843
0.223529 0.105882 0.101961
-55.7644 -92.4514 845
0.211765 0.0901961 0.101961
-51.5443 -92.7797 848
0.211765 0.0901961 0.105882
-47.1262 -92.7797 848
0.207843 0.0823529 0.0627451
-42.557 -92.4514 845
0.215686 0.0901961 0.113725
-37.7933 -91.5762 837
0.498039 0.262745 0.243137
-23.2939 -86.3245 789
0.509804 0.270588 0.270588
-19.0617 -85.7774 784
0.517647 0.294118 0.27451
-14.8815 -85.2304 779
0.533333 0.298039 0.321569
-10.7395 -84.5739 773
0.498039 0.262745 0.25098
-6.68617 -84.2457 770
0.443137 0.2 0.141176
-2.66405 -83.9175 767
0.435294 0.192157 0.243137
1.3216 -83.261 761
0.509804 0.254902 0.278431
5.26557 -82.9328 758
0.568627 0.266667 0.352941
9.17828 -82.6045 755
0.729412 0.4 0.45098
13.0597 -82.2763 752
0.843137 0.466667 0.509804
16.9325 -82.0575 750
0.952941 0.607843 0.713726
20.8956 -82.2763 752
0.992157 0.901961 0.905882
24.8465 -82.3857 753
0.972549 0.878431 0.905882
28.846 -82.6045 755
0.984314 0.945098 0.905882
32.823 -82.714 756
0.988235 0.890196 0.901961
37.0049 -83.261 761
0.894118 0.627451 0.423529
40.9697 -83.261 761
0.886275 0.643137 0.623529
45.0526 -83.4798 763
0.972549 0.890196 0.870588
49.1563 -83.6986 765
0.960784 0.913726 0.913726
53.3504 -84.0269 768
0.956863 0.921569 0.878431
57.6504 -84.4645 772
0.964706 0.921569 0.901961
61.9122 -84.7927 775
0.976471 0.960784 0.933333
66.2903 -85.2304 779
0.972549 0.941177 0.913726
70.8004 -85.7774 784
0.968628 0.921569 0.886275
75.3626 -86.3245 789
0.968628 0.776471 0.67451
80.2792 -87.1998 797
0.647059 0.545098 0.592157
781.08 -464.227 4243
0.65098 0.552941 0.584314
803.186 -464.227 4243
0.647059 0.54902 0.596078
815.372 -458.647 4192
0.662745 0.556863 0.596078
827.226 -453.176 4142
0.670588 0.556863 0.596078
848.806 -453.176 4142
0.670588 0.564706 0.580392
850.003 -442.563 4045
0.670588 0.568627 0.6
871.077 -442.563 4045
0.666667 0.564706 0.615686
892.152 -442.563 4045
0.670588 0.568627 0.607843
902.615 -437.421 3998
0.678431 0.580392 0.611765
934.301 -442.563 4045
0.682353 0.572549 0.611765
944.274 -437.421 3998
0.678431 0.568627 0.607843
965.104 -437.421 3998
0.682353 0.572549 0.619608
985.933 -437.421 3998
0.678431 0.576471 0.631373
995.179 -432.388 3952
0.686275 0.576471 0.635294
1004.2 -427.465 3907
0.690196 0.584314 0.615686
1013.28 -422.76 3864
0.698039 0.588235 0.627451
1033.41 -422.76 3864
0.682353 0.596078 0.639216
1053.55 -422.76 3864
0.701961 0.592157 0.631373
1073.68 -422.76 3864
0.701961 0.592157 0.635294
1093.81 -422.76 3864
0.694118 0.596078 0.619608
1101.54 -418.056 3821
0.690196 0.603922 0.631373
1121.45 -418.056 3821
0.690196 0.596078 0.643137
1128.81 -413.46 3779
0.690196 0.592157 0.627451
1161.27 -418.056 3821
0.686275 0.596078 0.623529
1181.17 -418.056 3821
0.662745 0.607843 0.662745
1187.88 -413.46 3779
0.462745 0.470588 0.627451
1207.57 -413.46 3779
0.337255 0.423529 0.541176
1213.94 -408.975 3738
0.34902 0.172549 0.384314
1233.42 -408.975 3738
0.419608 0.00392157 0.196078
1239.48 -404.598 3698
0.345098 0.133333 0.0156863
1245.47 -400.331 3659
0.584314 0.470588 0.505882
-701.613 -526.21 5050
0.596078 0.478431 0.509804
-665.541 -518.603 4977
0.443137 0.160784 0.156863
-72.3322 -86.7986 833
0.329412 0.14902 0.164706
-68.1555 -87.007 835
0.298039 0.156863 0.117647
-63.958 -87.2154 837
0.270588 0.137255 0.117647
-59.7396 -87.4238 839
0.231373 0.101961 0.0901961
-55.3684 -87.4238 839
0.207843 0.0862745 0.0941177
-51.3619 -88.049 845
0.192157 0.0980392 0.0901961
-46.9595 -88.049 845
0.207843 0.0823529 0.0941177
-42.4563 -87.8406 843
0.211765 0.0941177 0.0941177
-37.6127 -86.7986 833
0.490196 0.254902 0.247059
-23.412 -82.6306 793
0.490196 0.258824 0.254902
-19.1103 -81.9012 786
0.505882 0.278431 0.27451
-14.9006 -81.276 780
0.517647 0.305882 0.290196
-10.7673 -80.755 775
0.490196 0.262745 0.239216
-6.70353 -80.4424 772
0.478431 0.270588 0.231373
-2.66752 -80.0256 768
0.509804 0.290196 0.262745
1.32508 -79.5046 763
0.541176 0.301961 0.301961
5.26557 -78.9836 758
0.584314 0.321569 0.356863
9.15397 -78.4626 753
0.670588 0.356863 0.388235
13.0597 -78.3584 752
0.682353 0.423529 0.439216
16.9777 -78.3584 752
0.823529 0.572549 0.607843
20.8956 -78.3584 752
0.972549 0.721569 0.764706
24.8135 -78.3584 752
0.972549 0.886275 0.878431
28.7314 -78.3584 752
0.980392 0.952941 0.937255
32.7796 -78.671 755
0.968628 0.92549 0.909804
36.859 -78.9836 758
0.984314 0.843137 0.784314
40.9697 -79.2962 761
0.964706 0.717647 0.639216
45.0526 -79.5046 763
0.972549 0.831373 0.815686
49.2849 -79.9214 767
0.960784 0.886275 0.862745
53.4893 -80.234 770
0.960784 0.905882 0.894118
57.7251 -80.5466 773
0.972549 0.941177 0.913726
61.9122 -80.755 775
0.976471 0.952941 0.921569
66.3754 -81.276 780
0.972549 0.945098 0.894118
70.981 -81.9012 786
0.972549 0.909804 0.847059
75.5537 -82.4222 791
0.854902 0.67451 0.533333
80.0777 -82.839 795
0.654902 0.533333 0.584314
758.974 -442.121 4243
0.647059 0.552941 0.572549
781.08 -442.121 4243
0.654902 0.541176 0.580392
793.532 -436.806 4192
0.662745 0.545098 0.603922
805.647 -431.596 4142
0.666667 0.54902 0.6
817.44 -426.491 4093
0.670588 0.556863 0.611765
838.765 -426.491 4093
0.666667 0.564706 0.596078
850.003 -421.489 4045
0.678431 0.560784 0.603922
871.077 -421.489 4045
0.670588 0.568627 0.596078
892.152 -421.489 4045
0.67451 0.572549 0.603922
913.226 -421.489 4045
0.678431 0.568627 0.607843
934.301 -421.489 4045
0.682353 0.576471 0.615686
944.274 -416.592 3998
0.67451 0.576471 0.607843
965.104 -416.592 3998
0.682353 0.580392 0.619608
974.59 -411.798 3952
0.690196 0.576471 0.627451
995.179 -411.798 3952
0.694118 0.592157 0.631373
1004.2 -407.109 3907
0.690196 0.596078 0.627451
1013.28 -402.629 3864
0.686275 0.592157 0.623529
1033.41 -402.629 3864
0.701961 0.6 0.615686
1041.82 -398.148 3821
0.694118 0.592157 0.627451
1061.73 -398.148 3821
0.694118 0.584314 0.615686
1081.64 -398.148 3821
0.686275 0.592157 0.635294
1101.54 -398.148 3821
0.686275 0.592157 0.623529
1121.45 -398.148 3821
0.686275 0.588235 0.619608
1141.36 -398.148 3821
0.698039 0.572549 0.607843
1161.27 -398.148 3821
0.631373 0.529412 0.572549
1168.19 -393.772 3779
0.388235 0.211765 0.266667
1174.99 -389.5 3738
0.313726 0.282353 0.345098
1181.68 -385.332 3698
0.627451 0.423529 0.368627
1188.28 -381.268 3659
0.67451 0.592157 0.415686
1220.22 -385.332 3698
0.643137 0.521569 0.454902
1226.41 -381.268 3659
0.6 0.396078 0.427451
1245.47 -381.268 3659
0.572549 0.47451 0.482353
-691.471 -492.673 4977
0.592157 0.478431 0.486275
-665.541 -492.673 4977
0.6 0.478431 0.541176
-639.611 -492.673 4977
0.345098 0.160784 0.137255
-68.1555 -82.6566 835
0.301961 0.145098 0.133333
-63.8051 -82.6566 835
0.278431 0.133333 0.121569
-59.5972 -82.8546 837
0.231373 0.101961 0.101961
-55.2364 -82.8546 837
0.188235 0.0901961 0.0784314
-51.2403 -83.4486 843
0.184314 0.0862745 0.0705882
-46.7372 -83.2506 841
0.2 0.0823529 0.0784314
-42.1541 -82.8546 837
0.470588 0.25098 0.247059
-23.5301 -78.895 797
0.490196 0.243137 0.258824
-19.1589 -78.0041 788
0.486275 0.27451 0.247059
-14.9006 -77.2122 780
0.505882 0.294118 0.262745
-10.7673 -76.7172 775
0.498039 0.278431 0.235294
-6.71222 -76.5193 773
0.490196 0.282353 0.25098
-2.66752 -76.0243 768
0.521569 0.298039 0.254902
1.32508 -75.5294 763
0.52549 0.294118 0.278431
5.26557 -75.0344 758
0.572549 0.32549 0.321569
9.17828 -74.7374 755
0.65098 0.392157 0.364706
13.0771 -74.5395 753
0.709804 0.45098 0.415686
17.0002 -74.5395 753
0.745098 0.462745 0.4
20.8956 -74.4405 752
0.866667 0.529412 0.572549
24.8135 -74.4405 752
0.960784 0.737255 0.709804
28.7696 -74.5395 753
0.968628 0.835294 0.862745
32.7796 -74.7374 755
0.960784 0.894118 0.898039
36.7618 -74.8364 756
0.964706 0.87451 0.870588
40.9697 -75.3314 761
0.960784 0.811765 0.741176
45.0526 -75.5294 763
0.956863 0.807843 0.796079
49.2849 -75.9253 767
0.956863 0.835294 0.819608
53.4893 -76.2223 770
0.960784 0.87451 0.827451
57.6504 -76.4203 772
0.968628 0.913726 0.878431
62.0719 -76.9152 777
0.968628 0.929412 0.913726
66.3754 -77.2122 780
0.968628 0.917647 0.87451
70.981 -77.8061 786
0.988235 0.898039 0.780392
75.7447 -78.4991 793
0.337255 0.2 0.219608
108.889 -81.6667 825
0.654902 0.545098 0.568627
758.974 -420.015 4243
0.647059 0.545098 0.568627
781.08 -420.015 4243
0.654902 0.556863 0.580392
793.532 -414.966 4192
0.654902 0.54902 0.592157
805.647 -410.017 4142
0.686275 0.545098 0.596078
817.44 -405.166 4093
0.670588 0.54902 0.6
838.765 -405.166 4093
0.662745 0.552941 0.6
850.003 -400.415 4045
0.666667 0.572549 0.580392
871.077 -400.415 4045
0.65098 0.576471 0.6
892.152 -400.415 4045
0.67451 0.572549 0.603922
902.615 -395.762 3998
0.666667 0.580392 0.603922
923.445 -395.762 3998
0.682353 0.560784 0.611765
944.274 -395.762 3998
0.698039 0.568627 0.615686
965.104 -395.762 3998
0.682353 0.580392 0.627451
974.59 -391.208 3952
0.690196 0.576471 0.627451
995.179 -391.208 3952
0.694118 0.588235 0.619608
993.151 -382.497 3864
0.682353 0.596078 0.603922
1024.56 -386.754 3907
0.690196 0.596078 0.619608
1033.41 -382.497 3864
0.705882 0.6 0.611765
1053.55 -382.497 3864
0.698039 0.596078 0.654902
1061.73 -378.241 3821
0.701961 0.596078 0.635294
1081.64 -378.241 3821
0.686275 0.584314 0.627451
1101.54 -378.241 3821
0.666667 0.584314 0.635294
1121.45 -378.241 3821
0.670588 0.580392 0.615686
1141.36 -378.241 3821
0.658824 0.560784 0.6
1148.5 -374.083 3779
0.607843 0.498039 0.505882
1155.52 -370.025 3738
0.454902 0.141176 0.188235
1162.42 -366.065 3698
0.356863 0.498039 0.619608
1169.22 -362.204 3659
0.556863 0.368627 0.360784
1175.94 -358.443 3621
0.545098 0.364706 0.317647
1207.35 -362.204 3659
0.54902 0.305882 0.352941
1226.41 -362.204 3659
0.345098 0.160784 0.305882
1245.47 -362.204 3659
0.580392 0.47451 0.482353
-681.607 -460.085 4906
0.615686 0.470588 0.47451
-665.541 -466.743 4977
0.588235 0.482353 0.486275
-639.611 -466.743 4977
0.352941 0.133333 0.129412
-68.1555 -78.3063 835
0.305882 0.14902 0.129412
-63.958 -78.4939 837
0.27451 0.137255 0.117647
-59.4548 -78.3063 835
0.243137 0.12549 0.0705882
-54.9724 -78.1187 833
0.207843 0.0823529 0.0784314
-50.9972 -78.6814 839
0.2 0.0784314 0.0941177
-46.5149 -78.4939 837
0.219608 0.0784314 0.0705882
-41.9527 -78.1187 833
0.462745 0.247059 0.223529
-23.5301 -74.7427 797
0.486275 0.258824 0.227451
-19.2318 -74.18 791
0.509804 0.254902 0.239216
-14.977 -73.5235 784
0.498039 0.278431 0.25098
-10.7951 -72.8671 777
0.521569 0.282353 0.239216
-6.72958 -72.6795 775
0.501961 0.286275 0.227451
-2.66752 -72.023 768
0.509804 0.290196 0.239216
1.32508 -71.5541 763
0.529412 0.290196 0.262745
5.27947 -71.2728 760
0.576471 0.305882 0.298039
9.19044 -70.8977 756
0.603922 0.333333 0.352941
13.1118 -70.8039 755
0.701961 0.388235 0.396078
17.0454 -70.8039 755
0.768628 0.482353 0.439216
20.9234 -70.6163 753
0.854902 0.568627 0.533333
24.8465 -70.6163 753
0.972549 0.72549 0.67451
28.846 -70.8039 755
0.976471 0.8 0.764706
32.7796 -70.8039 755
0.960784 0.819608 0.792157
36.859 -71.0852 758
0.960784 0.858824 0.835294
40.9697 -71.3666 761
0.960784 0.866667 0.807843
45.0526 -71.5541 763
0.960784 0.839216 0.807843
49.2849 -71.9293 767
0.956863 0.831373 0.811765
53.4893 -72.2106 770
0.960784 0.85098 0.819608
57.7251 -72.4919 773
0.964706 0.894118 0.854902
62.2317 -73.0546 779
0.972549 0.92549 0.882353
66.5456 -73.336 782
0.964706 0.87451 0.85098
70.981 -73.7111 786
0.996078 0.847059 0.729412
75.9357 -74.5551 795
0.317647 0.152941 0.160784
103.83 -76.8058 819
0.298039 0.172549 0.184314
108.361 -76.9934 821
0.654902 0.545098 0.572549
758.974 -397.909 4243
0.65098 0.54902 0.576471
781.08 -397.909 4243
0.635294 0.54902 0.588235
793.532 -393.126 4192
0.658824 0.564706 0.607843
805.647 -388.437 4142
0.666667 0.54902 0.6
817.44 -383.842 4093
0.658824 0.560784 0.592157
838.765 -383.842 4093
0.654902 0.568627 0.588235
850.003 -379.34 4045
0.666667 0.564706 0.592157
871.077 -379.34 4045
0.701961 0.568627 0.6
881.786 -374.932 3998
0.678431 0.564706 0.615686
902.615 -374.932 3998
0.682353 0.568627 0.607843
923.445 -374.932 3998
0.690196 0.572549 0.6
944.274 -374.932 3998
0.690196 0.576471 0.607843
965.104 -374.932 3998
0.67451 0.576471 0.619608
985.933 -374.932 3998
0.690196 0.576471 0.623529
995.179 -370.619 3952
0.690196 0.596078 0.611765
1004.2 -366.398 3907
0.694118 0.592157 0.619608
1013.28 -362.366 3864
0.694118 0.596078 0.623529
1021.91 -358.333 3821
0.701961 0.588235 0.627451
1053.55 -362.366 3864
0.701961 0.596078 0.635294
1061.73 -358.333 3821
0.694118 0.596078 0.623529
1081.64 -358.333 3821
0.690196 0.596078 0.627451
1101.54 -358.333 3821
0.682353 0.580392 0.615686
1121.45 -358.333 3821
0.682353 0.576471 0.603922
1116.57 -350.55 3738
0.647059 0.560784 0.580392
1136.04 -350.55 3738
0.611765 0.494118 0.529412
1168.19 -354.395 3779
0.486275 0.243137 0.2
1187.88 -354.395 3779
0.333333 0.509804 0.560784
1181.68 -346.798 3698
0.580392 0.4 0.396078
1175.94 -339.577 3621
0.529412 0.301961 0.313726
1194.81 -339.577 3621
0.145098 0.121569 0.156863
1213.67 -339.577 3621
0.2 0.0941177 0.0784314
1232.54 -339.577 3621
0.576471 0.470588 0.490196
-681.607 -434.524 4906
0.580392 0.478431 0.494118
-665.541 -440.813 4977
0.592157 0.478431 0.482353
-639.611 -440.813 4977
0.305882 0.160784 0.156863
-63.958 -74.1331 837
0.290196 0.141176 0.137255
-59.7396 -74.3102 839
0.239216 0.0901961 0.113725
-55.3684 -74.3102 839
0.207843 0.0862745 0.0941177
-50.5109 -73.6017 831
0.207843 0.0901961 0.0862745
-46.1814 -73.6017 831
0.243137 0.0745098 0.0823529
-41.8519 -73.6017 831
0.192157 0.0705882 0.0666667
-37.4321 -73.4245 829
0.45098 0.243137 0.2
-23.5596 -70.6789 798
0.47451 0.243137 0.25098
-19.2805 -70.236 793
0.486275 0.25098 0.235294
-15.0152 -69.616 786
0.490196 0.254902 0.223529
-10.8229 -68.996 779
0.494118 0.270588 0.235294
-6.74695 -68.8189 777
0.505882 0.27451 0.254902
-2.66752 -68.0218 768
0.509804 0.278431 0.258824
1.32508 -67.5789 763
0.529412 0.298039 0.286275
5.27947 -67.3132 760
0.556863 0.321569 0.317647
9.19044 -66.9589 756
0.607843 0.341176 0.372549
13.1292 -66.9589 756
0.756863 0.478431 0.439216
17.0454 -66.8703 755
0.870588 0.572549 0.509804
20.9789 -66.8703 755
0.960784 0.694118 0.666667
24.9125 -66.8703 755
0.968628 0.741176 0.631373
28.846 -66.8703 755
0.952941 0.792157 0.764706
32.823 -66.9589 756
0.952941 0.796079 0.756863
36.9563 -67.3132 760
0.952941 0.831373 0.831373
40.9697 -67.4018 761
0.952941 0.878431 0.886275
45.0526 -67.5789 763
0.964706 0.882353 0.843137
49.3491 -68.0218 768
0.960784 0.839216 0.815686
53.6283 -68.376 772
0.960784 0.823529 0.815686
58.0238 -68.8189 777
0.960784 0.858824 0.839216
62.4714 -69.2617 782
0.968628 0.870588 0.823529
66.886 -69.616 786
0.980392 0.831373 0.819608
71.4326 -70.0589 791
0.827451 0.572549 0.427451
76.1268 -70.5903 797
0.317647 0.164706 0.192157
108.361 -72.716 821
0.380392 0.227451 0.254902
112.638 -72.716 821
0.470588 0.321569 0.290196
116.916 -72.716 821
0.65098 0.545098 0.584314
758.974 -375.802 4243
0.662745 0.54902 0.584314
781.08 -375.802 4243
0.662745 0.556863 0.580392
793.532 -371.285 4192
0.658824 0.54902 0.588235
805.647 -366.857 4142
0.682353 0.545098 0.580392
817.44 -362.517 4093
0.670588 0.556863 0.596078
838.765 -362.517 4093
0.678431 0.564706 0.596078
860.089 -362.517 4093
0.670588 0.568627 0.607843
871.077 -358.266 4045
0.678431 0.568627 0.611765
881.786 -354.103 3998
0.67451 0.580392 0.588235
902.615 -354.103 3998
0.678431 0.580392 0.6
923.445 -354.103 3998
0.682353 0.572549 0.615686
944.274 -354.103 3998
0.686275 0.572549 0.627451
965.104 -354.103 3998
0.686275 0.576471 0.627451
985.933 -354.103 3998
0.686275 0.588235 0.611765
995.179 -350.029 3952
0.678431 0.588235 0.623529
1004.2 -346.043 3907
0.690196 0.603922 0.623529
1013.28 -342.234 3864
0.694118 0.596078 0.623529
1021.91 -338.426 3821
0.701961 0.6 0.619608
1053.55 -342.234 3864
0.694118 0.592157 0.635294
1061.73 -338.426 3821
0.698039 0.588235 0.623529
1081.64 -338.426 3821
0.686275 0.588235 0.615686
1101.54 -338.426 3821
0.701961 0.576471 0.615686
1109.12 -334.706 3779
0.678431 0.576471 0.607843
1116.57 -331.075 3738
0.662745 0.560784 0.576471
1123.88 -327.532 3698
0.603922 0.494118 0.560784
1155.52 -331.075 3738
0.513726 0.352941 0.219608
1187.88 -334.706 3779
0.32549 0.372549 0.517647
1181.68 -327.532 3698
0.607843 0.32549 0.368627
1175.94 -320.712 3621
0.333333 0.129412 0.294118
1207.35 -324.078 3659
0.160784 0.0980392 0.152941
1213.67 -320.712 3621
0.223529 0.12549 0.156863
1232.54 -320.712 3621
0.572549 0.470588 0.47451
-681.607 -408.964 4906
0.584314 0.47451 0.478431
-665.541 -414.883 4977
0.596078 0.478431 0.494118
-648.992 -420.968 5050
0.329412 0.172549 0.176471
-63.6523 -69.4389 833
0.301961 0.152941 0.152941
-59.7396 -69.939 839
0.254902 0.0980392 0.105882
-55.3684 -69.939 839
0.219608 0.0941177 0.0784314
-50.3894 -69.1054 829
0.223529 0.101961 0.0941177
-46.0703 -69.1054 829
0.219608 0.0784314 0.0666667
-41.5497 -68.772 825
0.298039 0.152941 0.172549
-23.7368 -67.0214 804
0.466667 0.254902 0.219608
-19.3777 -66.4379 797
0.490196 0.243137 0.215686
-15.1107 -65.9378 791
0.470588 0.239216 0.211765
-10.8924 -65.3542 784
0.498039 0.25098 0.247059
-6.74695 -64.7707 777
0.505882 0.266667 0.254902
-2.66752 -64.0205 768
0.509804 0.27451 0.25098
1.32855 -63.7704 765
0.513726 0.301961 0.27451
5.28641 -63.437 761
0.552941 0.298039 0.305882
9.21475 -63.1869 758
0.619608 0.380392 0.313726
13.1292 -63.0202 756
0.768628 0.47451 0.466667
17.0454 -62.9368 755
0.886275 0.615686 0.564706
20.9789 -62.9368 755
0.976471 0.756863 0.74902
24.9125 -62.9368 755
0.960784 0.886275 0.862745
28.8842 -63.0202 756
0.960784 0.886275 0.862745
32.823 -63.0202 756
0.952941 0.843137 0.85098
36.9563 -63.3536 760
0.960784 0.870588 0.843137
41.0774 -63.6037 763
0.956863 0.854902 0.823529
45.2888 -63.9371 767
0.964706 0.87451 0.815686
49.4776 -64.1872 770
0.968628 0.831373 0.764706
53.8367 -64.604 775
0.972549 0.807843 0.764706
58.1731 -64.9374 779
0.972549 0.803922 0.760784
62.7909 -65.521 786
0.988235 0.796079 0.768628
67.1413 -65.771 789
0.92549 0.815686 0.705882
71.7938 -66.2712 795
0.32549 0.133333 0.172549
108.889 -68.772 825
0.407843 0.211765 0.219608
112.638 -68.4386 821
0.47451 0.309804 0.305882
116.916 -68.4386 821
0.529412 0.411765 0.403922
120.603 -68.1051 817
0.643137 0.54902 0.564706
758.974 -353.696 4243
0.658824 0.552941 0.580392
781.08 -353.696 4243
0.666667 0.54902 0.580392
793.532 -349.445 4192
0.666667 0.552941 0.596078
805.647 -345.277 4142
0.678431 0.54902 0.592157
827.226 -345.277 4142
0.666667 0.556863 0.576471
848.806 -345.277 4142
0.658824 0.560784 0.603922
860.089 -341.192 4093
0.670588 0.564706 0.6
871.077 -337.191 4045
0.67451 0.572549 0.6
881.786 -333.273 3998
0.670588 0.576471 0.596078
902.615 -333.273 3998
0.694118 0.580392 0.603922
923.445 -333.273 3998
0.678431 0.584314 0.615686
933.41 -329.439 3952
0.670588 0.572549 0.615686
954 -329.439 3952
0.690196 0.576471 0.615686
974.59 -329.439 3952
0.694118 0.584314 0.603922
995.179 -329.439 3952
0.694118 0.580392 0.623529
1004.2 -325.688 3907
0.698039 0.588235 0.635294
1013.28 -322.103 3864
0.698039 0.596078 0.623529
1033.41 -322.103 3864
0.701961 0.596078 0.615686
1053.55 -322.103 3864
0.698039 0.596078 0.631373
1073.68 -322.103 3864
0.709804 0.596078 0.627451
1081.64 -318.519 3821
0.686275 0.6 0.643137
1101.54 -318.519 3821
0.694118 0.588235 0.603922
1109.12 -315.017 3779
0.678431 0.588235 0.611765
1116.57 -311.6 3738
0.658824 0.556863 0.592157
1123.88 -308.265 3698
0.619608 0.486275 0.521569
1168.19 -315.017 3779
0.521569 0.294118 0.247059
1187.88 -315.017 3779
0.298039 0.341176 0.486275
1194.47 -311.6 3738
0.615686 0.403922 0.380392
1188.28 -305.014 3659
0.270588 0.0196078 0.0705882
1194.81 -301.847 3621
0.14902 0.105882 0.12549
1213.67 -301.847 3621
0.258824 0.14902 0.184314
1245.47 -305.014 3659
0.552941 0.462745 0.470588
-672.159 -378.09 4838
0.560784 0.458824 0.478431
-656.047 -383.404 4906
0.580392 0.45098 0.490196
-648.992 -394.658 5050
0.588235 0.470588 0.482353
-622.682 -394.658 5050
0.329412 0.160784 0.145098
-58.6003 -64.3175 823
0.282353 0.12549 0.129412
-54.3125 -64.3175 823
0.247059 0.113725 0.0980392
-50.1462 -64.4737 825
0.239216 0.0823529 0.0823529
-45.848 -64.4737 825
0.215686 0.0941177 0.0666667
-41.449 -64.3175 823
0.192157 0.0627451 0.0823529
-29.8012 -67.0527 858
0.156863 0.0431373 0.137255
-23.6777 -62.6763 802
0.368627 0.215686 0.14902
-19.4507 -62.52 800
0.462745 0.231373 0.203922
-15.1872 -62.1292 795
0.470588 0.231373 0.215686
-10.9479 -61.5822 788
0.486275 0.25098 0.231373
-6.76432 -60.8788 779
0.490196 0.266667 0.258824
-2.68141 -60.3318 772
0.513726 0.270588 0.290196
1.33202 -59.941 767
0.517647 0.294118 0.286275
5.30031 -59.6284 763
0.556863 0.305882 0.329412
9.23907 -59.394 760
0.635294 0.384314 0.364706
13.1292 -59.0814 756
0.768628 0.470588 0.447059
17.0454 -59.0033 755
0.886275 0.584314 0.580392
20.9234 -58.847 753
0.976471 0.74902 0.792157
24.8465 -58.847 753
0.964706 0.901961 0.890196
28.846 -59.0033 755
0.960784 0.905882 0.894118
32.823 -59.0814 756
0.956863 0.882353 0.858824
36.9563 -59.394 760
0.960784 0.843137 0.839216
41.0774 -59.6284 763
0.964706 0.807843 0.811765
45.2888 -59.941 767
0.976471 0.843137 0.768628
49.6061 -60.3318 772
0.980392 0.772549 0.737255
53.8367 -60.5662 775
0.984314 0.796079 0.729412
58.2478 -60.957 780
0.992157 0.74902 0.737255
62.9507 -61.5822 788
0.937255 0.694118 0.682353
67.3115 -61.8167 791
0.494118 0.223529 0.0470588
72.2453 -62.52 800
0.329412 0.180392 0.168627
108.889 -64.4737 825
0.364706 0.235294 0.227451
113.187 -64.4737 825
0.466667 0.317647 0.278431
117.201 -64.3175 823
0.501961 0.309804 0.298039
121.489 -64.3175 823
0.662745 0.54902 0.576471
768.454 -335.732 4296
0.654902 0.54902 0.580392
771.691 -327.605 4192
0.658824 0.54902 0.572549
793.532 -327.605 4192
0.658824 0.560784 0.603922
796.116 -319.868 4093
0.654902 0.568627 0.592157
817.44 -319.868 4093
0.666667 0.556863 0.6
838.765 -319.868 4093
0.662745 0.556863 0.603922
850.003 -316.117 4045
0.67451 0.568627 0.603922
860.956 -312.444 3998
0.658824 0.568627 0.619608
881.786 -312.444 3998
0.67451 0.568627 0.603922
892.23 -308.849 3952
0.678431 0.576471 0.607843
912.82 -308.849 3952
0.678431 0.576471 0.623529
933.41 -308.849 3952
0.698039 0.572549 0.623529
954 -308.849 3952
0.686275 0.584314 0.619608
963.492 -305.332 3907
0.694118 0.588235 0.611765
973.02 -301.972 3864
0.694118 0.584314 0.615686
993.151 -301.972 3864
0.690196 0.588235 0.623529
1013.28 -301.972 3864
0.698039 0.592157 0.639216
1021.91 -298.611 3821
0.678431 0.6 0.623529
1041.82 -298.611 3821
0.701961 0.596078 0.635294
1061.73 -298.611 3821
0.682353 0.607843 0.627451
1081.64 -298.611 3821
0.686275 0.6 0.619608
1089.44 -295.329 3779
0.686275 0.596078 0.615686
1097.09 -292.125 3738
0.682353 0.576471 0.615686
1116.57 -292.125 3738
0.658824 0.564706 0.588235
1136.04 -292.125 3738
0.627451 0.513726 0.564706
1168.19 -295.329 3779
0.521569 0.411765 0.313726
1187.88 -295.329 3779
0.290196 0.266667 0.427451
1194.47 -292.125 3738
0.658824 0.466667 0.403922
1188.28 -285.951 3659
0.286275 0.0784314 0.0509804
1207.35 -285.951 3659
0.2 0.0980392 0.141176
1226.41 -285.951 3659
0.258824 0.133333 0.211765
1245.47 -285.951 3659
0.552941 0.447059 0.458824
-681.607 -357.844 4906
0.560784 0.435294 0.454902
-656.047 -357.844 4906
0.556863 0.439216 0.454902
-639.611 -363.022 4977
0.576471 0.45098 0.466667
-622.682 -368.347 5050
0.305882 0.160784 0.164706
-58.6003 -60.0296 823
0.290196 0.156863 0.145098
-54.3125 -60.0296 823
0.270588 0.109804 0.101961
-50.0247 -60.0296 823
0.270588 0.0941177 0.0588235
-45.7369 -60.0296 823
0.196078 0.0705882 0.0666667
-29.6623 -62.2908 854
0.180392 0.0588235 0.0901961
-25.2129 -62.2908 854
0.2 0.0509804 0.141176
-19.4507 -58.352 800
0.466667 0.211765 0.180392
-15.2445 -58.2061 798
0.45098 0.215686 0.215686
-10.9896 -57.6955 791
0.47451 0.239216 0.207843
-6.773 -56.8932 780
0.490196 0.254902 0.235294
-2.68141 -56.3097 772
0.505882 0.278431 0.266667
1.33376 -56.0179 768
0.521569 0.286275 0.27451
5.30031 -55.6532 763
0.545098 0.298039 0.309804
9.21475 -55.2885 758
0.6 0.333333 0.333333
13.1292 -55.1426 756
0.733333 0.466667 0.435294
17.0454 -55.0697 755
0.886275 0.584314 0.584314
20.9234 -54.9238 753
0.968628 0.698039 0.72549
24.8465 -54.9238 753
0.968628 0.843137 0.847059
28.846 -55.0697 755
0.968628 0.823529 0.803922
32.823 -55.1426 756
0.968628 0.784314 0.780392
37.0049 -55.5073 761
0.964706 0.709804 0.694118
41.0774 -55.6532 763
0.980392 0.713726 0.717647
45.2888 -55.945 767
0.996078 0.756863 0.686275
49.6061 -56.3097 772
0.996078 0.698039 0.670588
53.9756 -56.6744 777
0.996078 0.686275 0.670588
58.5465 -57.185 784
0.866667 0.615686 0.556863
63.0306 -57.5497 789
0.6 0.368627 0.329412
67.822 -58.1332 797
0.545098 0.458824 0.392157
89.5842 -58.7896 806
0.4 0.254902 0.266667
94.2489 -59.0814 810
0.384314 0.215686 0.176471
98.469 -59.0814 810
0.333333 0.164706 0.180392
109.417 -60.4673 829
0.364706 0.196078 0.192157
113.462 -60.3214 827
0.431373 0.278431 0.262745
117.485 -60.1755 825
0.580392 0.356863 0.321569
121.489 -60.0296 823
0.588235 0.364706 0.427451
126.388 -60.3214 827
0.658824 0.545098 0.568627
768.454 -313.35 4296
0.666667 0.552941 0.584314
771.691 -305.764 4192
0.658824 0.552941 0.564706
793.532 -305.764 4192
0.67451 0.556863 0.564706
